-13704949.5068,4639781.54381,2.479
-13704947.1356,4639781.47419,2.063
-13704949.6069,4639781.56371,2.584
-13704946.7349,4639781.40172,2.073
-13704947.4028,4639781.56797,2.056
-13704949.3398,4639782.02836,2.615
-13704948.6607,4639781.28378,2.036
-13704949.6292,4639781.3804,2.48
-13704948.6607,4639781.56655,2.173
-13704947.169,4639781.57365,2.06
-13704949.4177,4639782.13777,2.719
-13704946.5568,4639781.60349,2.072
-13704948.8166,4639781.45571,2.172
-13704946.5902,4639781.46708,2.075
-13704948.7498,4639781.30083,2.07
-13704949.3843,4639782.03831,2.65
-13704948.7943,4639781.31078,2.104
-13704949.5179,4639782.0653,2.754
-13704946.0002,4639780.61735,2.105
-13704948.2377,4639781.57934,2.039
-13704949.1394,4639782.08236,2.511
-13704949.1951,4639781.99994,2.511
-13704946.9353,4639781.57792,2.065
-13704948.3824,4639781.51255,2.037
-13704946.9353,4639781.57934,2.101
-13704948.5383,4639781.44861,2.071
-13704949.0392,4639781.26246,2.136
-13704946.7794,4639781.41024,2.072
-13704949.273,4639781.21273,2.168
-13704948.5049,4639781.34914,2.038
-13704947.9483,4639781.85358,2.038
-13704949.362,4639781.84506,2.547
-13704948.772,4639781.16442,2.036
-13704948.093,4639781.83369,2.036
-13704949.4066,4639780.99959,2.027
-13704949.4288,4639781.71859,2.548
-13704949.5958,4639780.9868,2.024
-13704948.1709,4639781.66175,2.038
-13704949.529,4639781.69017,2.582
-13704947.4807,4639781.62907,2.053
-13704949.4288,4639781.14595,2.131
-13704949.4845,4639781.96442,2.685
-13704948.6051,4639781.83795,2.169
-13704949.6181,4639781.13458,2.163
-13704945.9891,4639780.42978,2.145
-13704948.2377,4639781.8138,2.069
-13704948.8054,4639781.21699,2.035
-13704947.2024,4639781.67312,2.093
-13704948.6385,4639781.65749,2.172
-13704949.5735,4639781.74559,2.616
-13704945.9223,4639780.23227,2.115
-13704947.3249,4639781.74133,2.089
-13704949.6737,4639781.04932,2.056
-13704948.2043,4639781.7598,2.035
-13704949.0615,4639781.12321,2.032
-13704949.273,4639781.828,2.513
-13704949.3064,4639781.64612,2.481
-13704947.1134,4639781.6106,2.061
-13704946.1894,4639780.32605,2.107
-13704948.2266,4639781.85927,2.068
-13704949.0615,4639781.12463,2.067
-13704949.2507,4639781.11326,2.099
-13704947.6811,4639781.80669,2.081
-13704948.4715,4639781.81237,2.136
-13704948.2488,4639781.7669,2.034
-13704946.9241,4639781.62339,2.1
-13704947.503,4639781.77259,2.049
-13704948.4158,4639781.61202,2.07
-13704949.3064,4639781.02801,2.028
-13704948.7943,4639781.59213,2.206
-13704949.4066,4639781.2852,2.236
-13704949.5958,4639781.27525,2.304
-13704948.8166,4639782.01841,2.304
-13704949.3843,4639781.47134,2.411
-13704949.529,4639781.40598,2.41
-13704949.4956,4639781.35056,2.34
-13704949.529,4639781.40598,2.41
-13704948.8611,4639782.02694,2.338
-13704949.0503,4639781.45429,2.239
-13704949.1951,4639781.4344,2.273
-13704949.0169,4639781.35483,2.206
-13704949.2285,4639781.2511,2.204
-13704949.1728,4639781.57365,2.377
-13704949.0392,4639782.06388,2.441
-13704949.1505,4639781.99142,2.476
-13704948.7832,4639781.91895,2.271
-13704949.4734,4639781.15731,2.201
-13704948.8388,4639781.882,2.27
-13704949.6515,4639781.23689,2.268
-13704948.7164,4639781.76406,2.204
-13704948.8277,4639781.64754,2.24
-13704948.9168,4639781.94594,2.339
-13704949.362,4639781.60776,2.445
-13704949.0726,4639781.59923,2.307
-13704948.9724,4639781.909,2.339
-13704949.1839,4639781.80953,2.444
-13704949.1505,4639781.70864,2.375
-13704949.2618,4639781.63618,2.41
-13704956.8093,4639777.79248,2.482
-13704959.1136,4639777.09622,2.557
-13704955.351,4639779.36406,3.158
-13704954.7388,4639780.05749,3.657
-13704954.0375,4639780.86175,3.654
-13704956.9318,4639777.00812,1.995
-13704957.5551,4639781.4415,4.859
-13704959.1804,4639779.32854,3.689
-13704955.3622,4639777.74986,2.047
-13704961.2064,4639783.02019,5.932
-13704956.9652,4639782.2344,5.355
-13704957.6776,4639782.13351,5.45
-13704959.0691,4639781.5907,5.326
-13704962.097,4639777.03227,2.605
-13704961.7519,4639775.50759,2.036
-13704962.5311,4639775.51043,2.02
-13704961.0617,4639775.42659,1.909
-13704959.6591,4639775.50332,2.043
-13704960.2825,4639775.3797,1.961
-13704958.1451,4639776.15696,1.952
-13704961.8855,4639776.89728,2.505
-13704960.4495,4639776.91575,2.498
-13704961.1285,4639776.99391,2.518
-13704958.9021,4639777.00812,2.492
-13704956.7091,4639776.96691,1.965
-13704957.5218,4639777.69018,2.505
-13704960.4495,4639778.33387,3.184
-13704959.6925,4639778.42765,3.161
-13704959.5923,4639779.12108,3.65
-13704956.787,4639779.11255,3.17
-13704954.4827,4639779.14239,2.572
-13704960.3493,4639779.93103,4.333
-13704958.1674,4639779.79746,3.7
-13704957.3659,4639779.88129,3.607
-13704961.1174,4639780.64293,4.767
-13704958.2342,4639780.57046,4.255
-13704952.2897,4639780.5122,2.48
-13704958.1785,4639781.27667,4.85
-13704957.4661,4639781.37614,4.755
-13704950.2081,4639781.29799,2.506
-13704960.3381,4639782.05536,5.398
-13704961.1619,4639782.10935,5.344
-13704958.2008,4639782.04115,5.37
-13704953.7926,4639781.98431,3.742
-13704957.377,4639782.0312,5.423
-13704955.2508,4639782.77863,4.34
-13704952.3677,4639782.70047,3.649
-13704956.0301,4639782.69905,4.792
-13704956.7648,4639782.84825,5.346
-13704958.9021,4639783.48911,6.041
-13704959.5812,4639783.56584,6.025
-13704958.2342,4639783.55447,6.017
-13704958.9021,4639775.59426,1.949
-13704950.7758,4639781.21841,2.603
-13704954.5607,4639778.3495,2.05
-13704955.9967,4639780.56904,3.764
-13704955.9633,4639779.05287,3.081
-13704956.6757,4639781.26673,4.308
-13704961.1619,4639779.79746,4.283
-13704950.7869,4639782.07525,3.193
-13704958.9466,4639780.51362,4.278
-13704954.5161,4639780.53209,3.723
-13704953.0578,4639781.27809,3.2
-13704959.6591,4639781.98005,5.449
-13704958.1674,4639778.43049,3.192
-13704956.6201,4639783.43227,5.48
-13704960.3715,4639777.09053,2.567
-13704958.9689,4639778.3424,3.178
-13704961.7408,4639777.58787,3.137
-13704959.6925,4639777.00954,2.476
-13704957.377,4639776.85749,2.025
-13704957.5329,4639783.60989,5.923
-13704955.262,4639780.52783,3.744
-13704953.8593,4639779.92818,3.069
-13704956.6089,4639782.01699,4.866
-13704959.8372,4639774.78574,1.948
-13704962.0079,4639775.36691,1.998
-13704961.2398,4639775.46069,1.94
-13704959.8929,4639775.49764,2.038
-13704959.0802,4639775.39391,1.95
-13704958.39,4639776.11007,2.02
-13704962.0747,4639776.88449,2.501
-13704960.6276,4639776.94986,2.529
-13704961.3289,4639776.89018,2.516
-13704956.8984,4639776.95412,1.961
-13704957.5329,4639777.64471,2.506
-13704960.6276,4639778.36513,3.179
-13704959.147,4639778.37366,3.138
-13704959.8483,4639778.31682,3.16
-13704958.3121,4639778.36513,3.191
-13704956.9874,4639779.0543,3.167
-13704953.158,4639779.16513,1.99
-13704961.2398,4639779.85856,4.28
-13704960.5608,4639779.7804,4.26
-13704957.6887,4639779.84719,3.601
-13704953.2693,4639779.94524,2.508
-13704953.915,4639779.84577,3.07
-13704959.1359,4639780.50225,4.31
-13704958.4346,4639780.5122,4.216
-13704957.6665,4639780.65287,4.229
-13704958.3233,4639781.30225,4.882
-13704957.6108,4639781.35767,4.824
-13704950.3528,4639781.23262,2.504
-13704960.5274,4639782.04115,5.358
-13704961.34,4639782.14204,5.339
-13704961.0617,4639777.12321,2.588
-13704959.8372,4639782.01131,5.409
-13704958.301,4639782.05678,5.368
-13704955.3622,4639782.09799,4.209
-13704957.6999,4639781.9971,5.381
-13704953.3027,4639782.12641,3.678
-13704950.375,4639782.04399,3.095
-13704952.5012,4639782.72605,3.681
-13704956.9095,4639782.82978,5.379
-13704959.7815,4639783.46069,5.952
-13704959.1359,4639783.48484,6.036
-13704958.4234,4639783.5431,6.049
-13704960.5385,4639784.26637,6.528
-13704952.4567,4639780.63724,2.581
-13704954.6497,4639779.03156,2.571
-13704955.4289,4639780.60456,3.739
-13704956.0635,4639779.02303,3.079
-13704957.7221,4639783.59852,5.955
-13704957.6887,4639778.43476,3.059
-13704960.4606,4639775.41096,1.921
-13704954.7165,4639780.47525,3.756
-13704956.0969,4639782.80989,4.895
-13704959.8706,4639776.99675,2.472
-13704959.8372,4639779.07561,3.753
-13704956.1971,4639781.36335,4.208
-13704954.0041,4639781.32214,3.681
-13704955.4401,4639778.47597,2.531
-13704959.1359,4639776.95838,2.488
-13704960.5719,4639780.63582,4.779
-13704953.2805,4639780.56762,3.067
-13704952.5235,4639781.4074,3.029
-13704959.6702,4639775.69089,2.039
-13704959.6368,4639776.43405,2.167
-13704958.2008,4639776.44968,2.124
-13704961.8187,4639777.0749,2.646
-13704957.377,4639777.18574,2.161
-13704956.7203,4639777.15874,2.068
-13704961.7408,4639777.91611,3.274
-13704955.351,4639777.84222,2.081
-13704959.6591,4639778.61238,3.265
-13704958.9355,4639778.5257,3.246
-13704954.5384,4639778.48591,2.084
-13704959.6925,4639779.37969,3.893
-13704957.3659,4639779.26744,3.298
-13704953.748,4639779.27739,2.19
-13704956.8093,4639779.25891,3.274
-13704960.327,4639780.11575,4.437
-13704958.1674,4639780.08165,3.873
-13704958.0895,4639780.68555,4.363
-13704956.0523,4639780.76797,3.83
-13704955.2731,4639780.71682,3.775
-13704950.9316,4639780.76371,2.037
-13704954.5273,4639780.72108,3.755
-13704957.4995,4639781.47987,4.895
-13704952.9911,4639781.45145,3.233
-13704954.6163,4639781.53245,3.843
-13704950.0856,4639781.46708,2.648
-13704959.7036,4639782.22445,5.514
-13704953.8371,4639782.27561,3.843
-13704956.6312,4639782.21024,5.005
-13704950.9428,4639782.24577,3.258
-13704955.1729,4639782.95198,4.374
-13704956.0635,4639783.03724,4.962
-13704957.4995,4639782.94346,5.616
-13704960.2713,4639783.64683,6.117
-13704959.6034,4639783.7122,6.093
-13704958.2008,4639783.78609,6.156
-13704959.6702,4639777.14879,2.581
-13704952.2897,4639780.84186,2.652
-13704953.8816,4639780.1257,3.315
-13704954.4605,4639779.32996,2.747
-13704955.9188,4639779.32854,3.219
-13704958.2008,4639781.46992,4.988
-13704958.2342,4639778.58396,3.224
-13704958.8799,4639783.62836,6.146
-13704960.4161,4639778.56406,3.323
-13704961.1842,4639779.94381,4.387
-13704961.8076,4639779.20492,3.889
-13704961.8521,4639775.71504,2.101
-13704957.5106,4639777.82943,2.61
-13704958.9355,4639777.10758,2.561
-13704958.1563,4639782.87667,5.604
-13704951.5105,4639780.68555,2.17
-13704957.4661,4639782.32818,5.486
-13704958.98,4639782.18609,5.566
-13704953.1358,4639779.34843,2.058
-13704957.5551,4639780.82197,4.371
-13704961.1285,4639777.89337,3.072
-13704958.8687,4639776.34027,2.185
-13704956.7091,4639781.41593,4.447
-13704958.8353,4639780.68413,4.455
-13704958.9578,4639777.20847,2.629
-13704956.6312,4639777.7598,2.486
-13704961.1285,4639778.50581,3.345
-13704962.0302,4639775.74773,2.097
-13704959.8595,4639775.67952,2.071
-13704959.7036,4639776.30474,2.132
-13704958.3455,4639776.43121,2.158
-13704962.0079,4639777.06211,2.642
-13704957.7221,4639777.06353,2.192
-13704959.058,4639777.18005,2.628
-13704956.9206,4639777.10048,2.029
-13704961.9523,4639777.76833,3.273
-13704957.544,4639777.88485,2.68
-13704955.4401,4639777.86069,2.15
-13704960.4717,4639778.52712,3.322
-13704959.1136,4639778.55696,3.206
-13704959.8483,4639778.64506,3.297
-13704958.4123,4639778.61664,3.255
-13704955.4735,4639778.5797,2.671
-13704959.7481,4639779.29586,3.858
-13704956.1971,4639779.33422,3.285
-13704953.1803,4639779.35554,2.057
-13704955.4846,4639779.38964,3.191
-13704960.5274,4639780.01202,4.435
-13704961.2064,4639780.09017,4.455
-13704958.2787,4639780.00776,3.872
-13704953.2582,4639780.08591,2.648
-13704953.8816,4639780.1257,3.315
-13704958.2676,4639780.67277,4.359
-13704956.1971,4639780.74666,3.827
-13704957.6887,4639780.80065,4.369
-13704954.7054,4639780.75518,3.786
-13704955.4846,4639780.80349,3.769
-13704951.0652,4639780.8376,2.14
-13704952.568,4639780.80207,2.719
-13704958.3455,4639781.40314,4.987
-13704957.6331,4639781.50687,4.963
-13704954.6386,4639781.4415,3.844
-13704950.2415,4639781.40172,2.646
-13704954.0263,4639782.26424,3.875
-13704951.0764,4639782.27276,3.326
-13704955.3733,4639782.89657,4.442
-13704956.2304,4639782.88378,5.034
-13704960.4606,4639783.63546,6.149
-13704959.0691,4639783.61557,6.142
-13704959.8483,4639783.66104,6.054
-13704958.4457,4639783.68946,6.117
-13704957.455,4639777.86495,2.575
-13704950.4196,4639782.28982,3.196
-13704951.7999,4639780.0376,2.035
-13704953.1803,4639781.4415,3.301
-13704956.9986,4639779.24612,3.27
-13704959.0134,4639782.24008,5.6
-13704959.8372,4639782.24719,5.475
-13704955.2174,4639777.81522,2.013
-13704959.1359,4639776.39,2.178
-13704961.3289,4639777.17295,2.618
-13704957.5551,4639779.25607,3.33
-13704956.2082,4639781.60207,4.382
-13704959.1136,4639780.6884,4.485
-13704961.9411,4639779.22907,3.886
-13704957.6553,4639780.12428,3.775
-13704957.6553,4639782.26992,5.484
-13704957.5997,4639782.91504,5.614
-13704958.2899,4639782.90083,5.6
-13704956.2082,4639777.15874,2.042
-13704954.672,4639778.51433,2.188
-13704961.0394,4639776.12854,2.181
-13704959.6702,4639776.25075,2.098
-13704958.9244,4639776.25785,2.149
-13704957.5106,4639776.88307,2.057
-13704961.763,4639777.73565,3.241
-13704961.0283,4639778.48875,3.312
-13704960.4383,4639778.42623,3.253
-13704958.9912,4639778.48733,3.21
-13704954.6052,4639778.40492,2.084
-13704961.8187,4639779.11398,3.855
-13704960.3493,4639779.0344,3.887
-13704961.084,4639779.07419,3.871
-13704957.4216,4639779.23049,3.298
-13704953.7258,4639779.17792,2.121
-13704956.6423,4639779.17934,3.207
-13704954.4827,4639779.19071,2.643
-13704961.0617,4639779.82872,4.356
-13704952.2563,4639779.88982,2.172
-13704959.5478,4639780.53493,4.444
-13704958.8353,4639780.63724,4.42
-13704956.6535,4639780.50367,3.823
-13704951.633,4639780.52214,2.171
-13704961.0172,4639781.28236,5.006
-13704958.9244,4639781.32356,5.048
-13704958.1674,4639781.41451,4.954
-13704953.0467,4639781.36904,3.234
-13704956.698,4639782.08236,5.006
-13704951.6441,4639782.00136,3.321
-13704950.8315,4639782.08378,3.192
-13704955.1952,4639782.86104,4.34
-13704958.2676,4639782.80136,5.567
-13704953.1024,4639782.74594,3.812
-13704957.4327,4639782.79141,5.584
-13704960.3381,4639783.47347,6.083
-13704956.787,4639783.55873,5.617
-13704958.9466,4639783.49905,6.075
-13704961.0283,4639784.2209,6.769
-13704957.4772,4639778.58254,3.06
-13704952.2897,4639782.0241,3.307
-13704953.8593,4639782.13777,3.809
-13704953.7258,4639779.8003,2.717
-13704954.4382,4639781.26531,3.816
-13704954.5495,4639780.63156,3.756
-13704956.7091,4639781.36904,4.412
-13704958.1897,4639779.94381,3.804
-13704959.5589,4639782.01131,5.522
-13704960.3715,4639777.65323,2.734
-13704950.8537,4639781.33067,2.742
-13704955.2731,4639778.63227,2.531
-13704958.1785,4639779.13671,3.32
-13704959.6814,4639779.14097,3.755
-13704954.4939,4639781.97578,3.871
-13704960.3493,4639776.09586,2.16
-13704956.0412,4639780.57614,3.763
-13704955.2397,4639780.66424,3.777
-13704961.0394,4639783.46353,6.176
-13704958.9578,4639781.99568,5.534
-13704958.2119,4639778.43902,3.191
-13704959.7147,4639775.46638,2.043
-13704955.9076,4639781.96868,4.416
-13704958.8353,4639779.78325,3.902
-13704960.3715,4639781.2582,5.02
-13704960.3938,4639779.93955,4.332
-13704950.1858,4639781.39177,2.611
-13704958.0672,4639777.56229,2.747
-13704958.134,4639780.64719,4.327
-13704959.8483,4639776.28627,2.166
-13704959.1136,4639776.24506,2.146
-13704957.6553,4639776.86318,2.091
-13704960.5719,4639777.55092,2.732
-13704962.0636,4639777.60208,3.202
-13704961.2064,4639778.28556,3.241
-13704959.8706,4639778.46318,3.228
-13704954.7499,4639778.38644,2.153
-13704961.9077,4639779.17508,3.852
-13704961.2732,4639779.05998,3.831
-13704958.3344,4639779.06993,3.318
-13704959.7259,4639779.15092,3.79
-13704957.6553,4639779.22765,3.329
-13704954.6386,4639779.12676,2.677
-13704956.9763,4639779.10119,3.202
-13704958.3344,4639779.92392,3.837
-13704959.0246,4639780.62445,4.417
-13704956.1414,4639780.50225,3.762
-13704954.7276,4639780.61877,3.753
-13704960.4717,4639781.22836,4.983
-13704961.2064,4639781.26957,5.003
-13704958.3678,4639781.31078,4.917
-13704953.158,4639781.24968,3.234
-13704955.3065,4639779.35412,3.124
-13704954.0486,4639782.12641,3.806
-13704956.7982,4639782.05536,5.04
-13704951.7777,4639781.97863,3.282
-13704951.1098,4639782.09088,3.294
-13704955.4512,4639782.72463,4.445
-13704958.4457,4639782.78857,5.564
-13704953.236,4639782.77294,3.88
-13704956.2082,4639782.73742,4.966
-13704957.6108,4639782.8241,5.616
-13704960.4829,4639783.49905,6.116
-13704956.9429,4639783.4479,5.616
-13704952.4678,4639782.01273,3.339
-13704954.0486,4639779.9225,3.28
-13704953.915,4639779.16655,2.153
-13704959.0914,4639783.47774,6.073
-13704958.98,4639781.2852,5.012
-13704959.8483,4639775.49053,2.04
-13704960.6276,4639778.36513,3.179
-13704952.5012,4639779.79604,2.169
-13704951.0986,4639781.28094,2.738
-13704950.3862,4639781.38182,2.679
-13704960.5719,4639776.13849,2.19
-13704954.672,4639781.26104,3.812
-13704960.5942,4639779.88271,4.365
-13704961.2287,4639779.95092,4.35
-13704961.2732,4639783.45784,6.172
-13704962.0859,4639776.22659,2.193
-13704958.39,4639778.47312,3.223
-13704956.8427,4639780.53778,3.855
-13704956.9206,4639781.21983,4.375
-13704958.3789,4639783.58005,6.049
-13704958.4568,4639780.65998,4.356
-13704958.4234,4639776.20954,2.053
-13704955.4623,4639777.72286,2.081
-13704959.0468,4639778.45039,3.21
-13704952.5012,4639780.64719,2.616
-13704959.0357,4639782.10367,5.566
-13704961.7964,4639780.0987,4.264
-13704960.2936,4639779.96797,4.333
-13704959.993,4639774.95341,1.941
-13704960.6721,4639775.54169,1.914
-13704961.3957,4639775.63121,2.041
-13704959.3029,4639775.71647,2.046
-13704957.7889,4639776.37153,1.955
-13704961.4402,4639777.09906,2.617
-13704960.7389,4639777.11185,2.595
-13704959.3029,4639777.1289,2.588
-13704960.0821,4639777.17721,2.571
-13704957.1099,4639777.04222,2.026
-13704958.5125,4639777.12321,2.497
-13704956.3529,4639777.13884,2.04
-13704961.3845,4639777.75554,3.105
-13704957.0319,4639777.83369,2.476
-13704956.442,4639777.77259,2.49
-13704959.3585,4639778.50581,3.166
-13704957.7667,4639778.58964,3.161
-13704954.1933,4639778.60669,1.981
-13704959.1915,4639779.28165,3.654
-13704955.685,4639779.28449,3.153
-13704954.1265,4639779.35412,2.503
-13704961.4959,4639779.99781,4.272
-13704960.0376,4639780.10865,4.335
-13704957.8112,4639780.01202,3.739
-13704957.1099,4639780.02197,3.645
-13704956.2638,4639780.10154,3.661
-13704954.9169,4639780.08875,3.617
-13704960.7166,4639780.85039,4.843
-13704960.0153,4639780.86175,4.785
-13704953.3807,4639780.77508,3.132
-13704950.4641,4639780.77223,2.01
-13704952.0448,4639780.84328,2.585
-13704956.2638,4639781.51966,4.346
-13704952.6348,4639781.57223,3.166
-13704954.2044,4639781.50118,3.744
-13704949.8518,4639781.4685,2.581
-13704951.889,4639781.57223,3.038
-13704960.6721,4639782.25571,5.422
-13704961.4068,4639782.2955,5.406
-13704960.0042,4639782.13493,5.439
-13704958.5459,4639782.24435,5.466
-13704956.2972,4639782.2344,4.76
-13704957.0097,4639782.24292,5.39
-13704957.878,4639782.31113,5.478
-13704953.4141,4639782.2884,3.744
-13704950.4752,4639782.25145,3.16
-13704960.6832,4639783.06566,5.942
-13704954.8835,4639782.98751,4.2
-13704957.0319,4639782.90083,5.447
-13704957.8001,4639783.66388,6.059
-13704959.57,4639780.11149,4.202
-13704951.2879,4639781.60207,3.05
-13704954.1599,4639780.69976,3.691
-13704957.1099,4639781.59213,4.829
-13704962.1081,4639775.57295,2.027
-13704955.5291,4639782.22303,4.31
-13704957.8891,4639780.6955,4.295
-13704961.4625,4639780.84328,4.792
-13704957.121,4639780.83333,4.236
-13704953.3473,4639779.19923,2.021
-13704959.3585,4639781.5495,5.321
-13704959.4253,4639774.99178,1.951
-13704960.1712,4639774.98609,1.936
-13704962.2862,4639775.60563,2.023
-13704960.9838,4639775.64684,1.977
-13704959.4921,4639775.70368,2.042
-13704960.2491,4639775.56158,1.994
-13704957.9336,4639776.35163,1.989
-13704961.7296,4639777.05785,2.612
-13704960.2379,4639777.06495,2.535
-13704960.9281,4639777.09906,2.592
-13704959.481,4639777.16158,2.584
-13704958.7463,4639777.07348,2.493
-13704956.5421,4639777.12606,2.036
-13704957.2212,4639777.82232,2.544
-13704955.0727,4639777.83511,1.979
-13704961.5738,4639780.06033,4.305
-13704960.2491,4639779.96087,4.334
-13704958.0004,4639779.95376,3.736
-13704957.3436,4639780.01913,3.676
-13704956.5199,4639779.96087,3.623
-13704955.1061,4639780.07596,3.613
-13704960.9281,4639780.70119,4.806
-13704957.9336,4639780.70403,4.294
-13704957.2212,4639780.80349,4.199
-13704952.1005,4639780.80634,2.585
-13704950.6088,4639780.75092,2.008
-13704957.2657,4639781.47987,4.792
-13704949.952,4639781.44008,2.579
-13704952.2229,4639781.53955,3.032
-13704960.917,4639782.16051,5.383
-13704960.1712,4639782.21166,5.433
-13704953.581,4639782.13209,3.744
-13704957.2546,4639782.19603,5.458
-13704958.0672,4639782.29692,5.439
-13704955.0727,4639782.97756,4.304
-13704955.852,4639782.89941,4.791
-13704951.4326,4639781.5836,3.083
-13704954.3269,4639779.25465,2.608
-13704954.2935,4639778.5328,2.016
-13704955.1061,4639779.41096,3.091
-13704956.4754,4639777.8749,2.594
-13704958.6461,4639782.17046,5.465
-13704950.0077,4639782.25571,3.062
-13704961.6406,4639775.58147,2.037
-13704955.7406,4639779.24612,3.081
-13704954.3046,4639780.67987,3.724
-13704952.8909,4639781.4344,3.2
-13704956.4308,4639782.26282,4.864
-13704957.9559,4639783.5971,6.022
-13704960.9615,4639783.06992,5.936
-13704961.5738,4639777.74559,3.173
-13704959.5366,4639778.49302,3.163
-13704960.1155,4639780.83333,4.784
-13704957.288,4639778.6408,3.063
-13704959.3808,4639779.2717,3.722
-13704955.7406,4639780.70829,3.766
-13704962.186,4639775.39959,1.994
-13704961.4179,4639775.49338,1.971
-13704960.0376,4639775.47774,2.036
-13704959.2806,4639775.52748,2.014
-13704958.4791,4639776.12712,2.054
-13704961.3845,4639776.85181,2.48
-13704962.264,4639776.8717,2.498
-13704960.8057,4639776.98112,2.525
-13704960.0598,4639776.98538,2.504
-13704957.0876,4639776.94275,1.993
-13704961.4959,4639777.68165,3.105
-13704959.3363,4639778.36087,3.134
-13704955.5959,4639778.36655,2.566
-13704956.2861,4639779.06566,3.11
-13704953.3473,4639779.19923,2.021
-13704961.5181,4639779.85998,4.203
-13704953.325,4639779.90971,2.543
-13704960.75,4639780.6685,4.81
-13704958.5682,4639780.53778,4.249
-13704957.8668,4639780.59319,4.191
-13704951.1988,4639780.53351,2.0
-13704953.4697,4639780.55909,3.171
-13704957.7444,4639781.38325,4.856
-13704950.4864,4639781.2582,2.536
-13704960.7389,4639782.12783,5.388
-13704961.4847,4639782.12214,5.373
-13704960.0264,4639781.99852,5.405
-13704953.4363,4639782.15198,3.71
-13704955.5625,4639782.04257,4.278
-13704957.8891,4639782.02836,5.377
-13704950.5086,4639782.06957,3.127
-13704952.7684,4639782.77721,3.746
-13704959.9708,4639783.44932,5.984
-13704959.314,4639783.51752,6.032
-13704956.3306,4639783.46779,5.342
-13704960.7945,4639784.17401,6.56
-13704956.6535,4639779.98502,3.62
-13704952.0782,4639780.65998,2.481
-13704951.9224,4639779.87277,2.0
-13704952.7795,4639781.26957,3.062
-13704954.171,4639781.40172,3.747
-13704954.249,4639780.48236,3.694
-13704955.6182,4639780.59319,3.735
-13704957.8668,4639783.57863,5.988
-13704957.7889,4639779.82019,3.636
-13704957.8446,4639778.37081,3.129
-13704957.7221,4639777.63618,2.61
-13704958.6127,4639783.53173,6.046
-13704958.5793,4639782.06246,5.433
-13704958.5014,4639778.35234,3.187
-13704960.0264,4639779.91397,4.197
-13704960.6944,4639779.8074,4.329
-13704960.7723,4639775.51327,1.913
-13704959.3251,4639776.98964,2.484
-13704960.0821,4639778.31398,3.191
-13704956.4197,4639781.40598,4.274
-13704956.9986,4639782.84825,5.449
-13704957.0319,4639779.01735,3.167
-13704955.6071,4639779.22055,3.049
-13704949.8518,4639781.42161,2.51
-13704957.1321,4639782.07809,5.355
-13704954.9503,4639782.85962,4.201
-13704959.9263,4639779.04577,3.716
-13704955.5737,4639777.60066,2.01
-13704954.9169,4639780.60598,3.749
-13704960.7278,4639778.33671,3.178
-13704954.0597,4639779.82872,3.175
-13704961.6072,4639775.48201,2.004
-13704962.3196,4639775.42375,1.991
-13704959.4698,4639775.51469,2.011
-13704960.1712,4639775.50048,1.997
-13704961.7074,4639776.8646,2.509
-13704960.9949,4639776.96833,2.521
-13704960.2713,4639776.88165,2.467
-13704957.2769,4639776.93138,2.025
-13704956.5199,4639776.9797,1.968
-13704961.6962,4639777.62623,3.173
-13704959.5144,4639778.39355,3.13
-13704959.4031,4639779.13245,3.618
-13704953.5143,4639779.04293,2.021
-13704954.2935,4639779.19781,2.503
-13704960.1712,4639779.8955,4.23
-13704957.9782,4639779.80882,3.668
-13704953.5365,4639779.81024,2.613
-13704960.8613,4639780.54914,4.775
-13704958.7574,4639780.52499,4.245
-13704955.8074,4639780.5804,3.731
-13704951.3435,4639780.51362,2.034
-13704958.045,4639781.2511,4.817
-13704952.8129,4639781.32214,3.06
-13704960.8836,4639782.10651,5.35
-13704960.2046,4639782.0312,5.401
-13704953.581,4639782.13209,3.744
-13704956.5199,4639782.04399,4.831
-13704957.2769,4639782.0582,5.388
-13704958.0227,4639782.00847,5.374
-13704957.5329,4639780.00634,3.673
-13704950.6979,4639782.0582,3.16
-13704955.0505,4639782.83262,4.236
-13704952.9243,4639782.71184,3.745
-13704952.2229,4639782.67632,3.652
-13704960.1489,4639783.48342,6.015
-13704958.724,4639783.45642,6.009
-13704959.4587,4639783.49621,6.029
-13704956.5199,4639783.45927,5.445
-13704958.0561,4639783.56726,6.021
-13704950.0188,4639781.30936,2.473
-13704950.6311,4639781.28378,2.605
-13704954.3714,4639780.55341,3.726
-13704956.6312,4639781.30509,4.344
-13704956.5978,4639779.12534,3.174
-13704958.0004,4639780.5733,4.188
-13704958.6349,4639781.98005,5.434
-13704960.9727,4639779.81167,4.323
-13704960.9504,4639775.50048,1.909
-13704952.1673,4639779.82303,2.032
-13704952.1673,4639780.67703,2.515
-13704955.8965,4639779.18076,3.115
-13704955.0839,4639780.49515,3.748
-13704961.6406,4639779.93103,4.235
-13704956.4531,4639777.72712,2.491
-13704959.5032,4639776.97686,2.48
-13704958.7908,4639778.31113,3.182
-13704960.2713,4639778.30119,3.188
-13704957.3102,4639779.91824,3.608
-13704962.1749,4639775.72499,2.059
-13704960.0376,4639775.7122,2.067
-13704962.264,4639776.30332,2.188
-13704958.557,4639776.28201,2.121
-13704959.314,4639776.42126,2.174
-13704962.186,4639777.04932,2.638
-13704961.5181,4639777.16158,2.65
-13704956.9986,4639777.16442,2.098
-13704960.661,4639778.51291,3.283
-13704960.0598,4639778.49586,3.26
-13704958.5904,4639778.64932,3.251
-13704955.6627,4639778.56975,2.739
-13704957.1433,4639779.22765,3.304
-13704956.3306,4639779.35838,3.282
-13704953.3584,4639779.39106,2.124
-13704960.8168,4639779.97081,4.43
-13704961.3957,4639780.07454,4.38
-13704957.8334,4639780.11149,3.772
-13704951.9892,4639780.07454,2.173
-13704953.3584,4639780.01202,2.648
-13704958.5014,4639780.71682,4.461
-13704956.2861,4639780.76371,3.861
-13704957.7778,4639780.8646,4.437
-13704952.6237,4639780.76513,2.718
-13704953.492,4639780.70545,3.239
-13704954.9391,4639780.79781,3.816
-13704951.1765,4639780.66992,2.069
-13704958.4902,4639781.42872,5.019
-13704956.3084,4639781.52818,4.381
-13704957.8223,4639781.4955,4.995
-13704959.1915,4639782.27276,5.595
-13704954.2156,4639782.25145,3.907
-13704955.5848,4639782.18751,4.346
-13704959.1582,4639783.63262,6.14
-13704959.9263,4639783.72498,6.122
-13704958.5904,4639783.66957,6.15
-13704957.7889,4639783.75482,6.093
-13704950.6088,4639782.27845,3.228
-13704951.5996,4639780.09444,2.002
-13704953.4475,4639782.34239,3.777
-13704955.6738,4639780.83618,3.8
-13704957.6999,4639779.23476,3.328
-13704957.7555,4639777.78254,2.713
-13704959.2917,4639778.58964,3.202
-13704959.2361,4639777.21273,2.624
-13704959.9374,4639782.26282,5.473
-13704961.5181,4639777.82801,3.173
-13704962.1415,4639777.75696,3.305
-13704961.5293,4639775.70226,2.072
-13704955.6293,4639779.36975,3.224
-13704954.8278,4639781.43014,3.876
-13704957.0542,4639783.04719,5.515
-13704958.5904,4639782.25287,5.465
-13704959.8929,4639776.2948,2.2
-13704956.3306,4639777.89621,2.633
-13704960.6387,4639783.6241,6.181
-13704957.8334,4639782.3026,5.479
-13704951.1877,4639782.19888,3.326
-13704955.5514,4639777.73991,2.115
-13704956.2972,4639777.17579,2.04
-13704953.069,4639780.04754,2.474
-13704958.4791,4639779.9495,3.87
-13704950.4975,4639780.82623,2.044
-13704949.8407,4639781.56086,2.615
-13704954.2267,4639778.66211,2.05
-13704959.8929,4639779.27739,3.891
-13704954.2156,4639779.37543,2.644
-13704961.7185,4639775.68947,2.069
-13704962.3085,4639776.31043,2.151
-13704958.6906,4639776.30758,2.153
-13704959.5032,4639776.40989,2.17
-13704958.0561,4639776.4241,2.056
-13704957.2991,4639777.03085,2.058
-13704961.7074,4639777.81664,3.241
-13704956.5199,4639777.88485,2.629
-13704959.481,4639778.57685,3.198
-13704960.2379,4639778.52996,3.291
-13704958.7463,4639778.53849,3.25
-13704954.338,4639778.58822,2.05
-13704961.6183,4639779.21771,3.893
-13704959.4698,4639779.28875,3.756
-13704957.1878,4639779.23476,3.302
-13704956.6201,4639779.2717,3.277
-13704953.5588,4639779.33422,2.157
-13704954.3714,4639779.2646,2.643
-13704960.1266,4639780.1257,4.369
-13704958.045,4639780.0106,3.805
-13704958.0895,4639780.68555,4.363
-13704951.3992,4639780.75944,2.17
-13704955.095,4639780.68555,3.78
-13704950.7424,4639780.7765,2.04
-13704956.4754,4639781.41877,4.416
-13704958.0116,4639781.48271,4.992
-13704952.9243,4639781.57934,3.268
-13704954.3825,4639781.53387,3.776
-13704950.0411,4639781.45713,2.613
-13704959.5255,4639782.19319,5.554
-13704956.531,4639782.23724,4.97
-13704953.6478,4639782.28697,3.81
-13704950.6199,4639782.23156,3.193
-13704957.3102,4639782.90793,5.548
-13704960.1266,4639783.66672,6.119
-13704959.3363,4639783.66388,6.135
-13704957.9782,4639783.74346,6.126
-13704958.7797,4639783.65678,6.147
-13704953.7369,4639780.04612,3.069
-13704955.2397,4639780.10154,3.61
-13704953.5143,4639780.85039,3.307
-13704954.3158,4639780.87028,3.791
-13704955.8631,4639780.77934,3.798
-13704955.8742,4639779.32001,3.22
-13704956.5867,4639780.67845,3.893
-13704958.7351,4639782.2344,5.534
-13704960.9949,4639779.95802,4.427
-13704960.9838,4639778.48023,3.313
-13704961.6294,4639777.08769,2.649
-13704956.4865,4639777.16442,2.072
-13704960.2268,4639775.69799,2.027
-13704962.264,4639775.74204,2.056
-13704955.8297,4639782.14346,4.485
-13704955.1173,4639782.98893,4.374
-13704958.6461,4639780.6955,4.459
-13704957.3325,4639782.25856,5.49
-13704954.2712,4639782.16903,3.872
-13704952.145,4639779.96371,2.172
-13704957.9559,4639778.57827,3.194
-13704962.1081,4639776.13565,2.159
-13704960.0598,4639776.13707,2.129
-13704957.7444,4639776.9257,2.123
-13704960.7055,4639777.57508,2.729
-13704962.2083,4639777.62765,3.235
-13704957.7667,4639777.6916,2.679
-13704955.5625,4639777.69444,2.08
-13704960.8168,4639778.40065,3.246
-13704958.5348,4639778.40492,3.185
-13704955.6961,4639778.33955,2.6
-13704961.4179,4639779.03724,3.793
-13704959.904,4639779.23049,3.856
-13704957.1655,4639779.0884,3.199
-13704957.8001,4639779.20634,3.326
-13704954.8278,4639779.0685,2.674
-13704953.5365,4639779.18787,2.053
-13704960.6944,4639779.85429,4.363
-13704958.5236,4639779.91255,3.869
-13704952.646,4639779.77472,2.166
-13704952.0114,4639779.89124,2.069
-13704953.4252,4639779.92818,2.613
-13704954.2044,4639779.85856,3.314
-13704959.2695,4639780.52925,4.378
-13704957.0765,4639780.53493,3.886
-13704956.2638,4639780.62019,3.829
-13704952.7461,4639780.6003,2.684
-13704954.8278,4639780.59035,3.751
-13704951.3213,4639780.65003,2.067
-13704960.6498,4639781.26104,4.979
-13704961.3845,4639781.30225,4.999
-13704958.5125,4639781.24541,4.915
-13704954.8501,4639781.29515,3.879
-13704961.1174,4639780.6884,4.802
-13704954.2044,4639782.06104,3.84
-13704951.9224,4639781.95873,3.28
-13704951.2433,4639782.11646,3.326
-13704957.8112,4639782.72037,5.578
-13704958.5125,4639782.70616,5.564
-13704960.7166,4639783.44932,6.148
-13704959.9485,4639783.58715,6.053
-13704958.557,4639783.61415,6.081
-13704950.5309,4639781.31504,2.642
-13704956.2527,4639782.74736,5.001
-13704958.4568,4639780.6614,4.392
-13704959.2917,4639781.96442,5.564
-13704958.5793,4639776.0987,2.052
-13704959.3029,4639776.23085,2.106
-13704960.0598,4639778.45039,3.225
-13704954.8056,4639778.30261,2.118
-13704958.5236,4639779.05714,3.315
-13704961.4291,4639778.37366,3.306
-13704953.5031,4639780.65856,3.204
-13704953.3361,4639782.74452,3.879
-13704960.7834,4639784.26637,6.63
-13704959.2695,4639783.51042,6.068
-13704960.7612,4639776.12428,2.15
-13704960.0153,4639777.58929,2.743
-13704956.2638,4639779.2035,3.179
-13704959.9374,4639775.50616,2.037
-13704954.0708,4639779.05572,2.188
-13704960.8168,4639779.07135,3.912
-13704959.2583,4639781.24541,5.043
-13704955.6516,4639782.10651,4.346
-13704960.0042,4639781.23973,5.028
-13704957.1544,4639782.78289,5.483
-13704957.4661,4639780.70829,4.196
-13704962.2862,4639776.12144,2.119
-13704960.9393,4639776.15838,2.182
-13704959.4921,4639776.21806,2.103
-13704960.2379,4639776.16975,2.16
-13704958.7463,4639776.27064,2.153
-13704960.9949,4639778.43476,3.278
-13704960.2491,4639778.43902,3.257
-13704958.6238,4639778.46744,3.218
-13704961.6406,4639779.07987,3.824
-13704957.2657,4639779.05998,3.233
-13704958.0784,4639779.2106,3.321
-13704955.0616,4639779.06566,2.705
-13704956.5978,4639779.17081,3.209
-13704953.5365,4639779.18929,2.089
-13704960.8836,4639779.84151,4.36
-13704953.581,4639779.81877,2.647
-13704952.1673,4639779.82303,2.032
-13704959.5032,4639780.52641,4.445
-13704957.2546,4639780.52214,3.882
-13704958.6461,4639780.64861,4.388
-13704956.4865,4639780.6614,3.859
-13704951.4771,4639780.58467,2.101
-13704952.8909,4639780.5804,2.717
-13704953.5365,4639780.47809,3.207
-13704955.0505,4639780.67703,3.781
-13704960.8279,4639781.29515,5.01
-13704958.7017,4639781.23262,4.912
-13704957.9336,4639781.3733,4.924
-13704957.3993,4639781.50687,4.861
-13704950.7758,4639781.26531,2.638
-13704961.0506,4639782.18467,5.38
-13704959.4698,4639781.99568,5.524
-13704954.3937,4639782.04967,3.872
-13704955.7629,4639781.98715,4.347
-13704951.4994,4639781.97578,3.288
-13704952.1895,4639782.05394,3.308
-13704957.9893,4639782.75305,5.574
-13704952.9577,4639782.76584,3.778
-13704960.9393,4639783.53742,6.177
-13704958.7017,4639783.59426,6.114
-13704960.917,4639784.29479,6.734
-13704950.7758,4639782.12072,3.192
-13704953.6701,4639782.15056,3.777
-13704954.3714,4639781.3463,3.78
-13704955.7406,4639778.39781,2.741
-13704957.9114,4639777.62623,2.678
-13704960.1266,4639783.62125,6.084
-13704960.1155,4639779.03582,3.784
-13704960.9949,4639779.10261,3.872
-13704961.5627,4639781.33493,5.03
-13704961.5627,4639778.35376,3.339
-13704960.1934,4639777.62055,2.739
-13704957.2435,4639782.75589,5.517
-13704959.5366,4639783.55873,6.062
-13704961.6294,4639777.70865,3.173
-13704959.4031,4639781.2241,5.041
-13704956.6089,4639782.06246,4.901
-13704958.6461,4639782.73173,5.597
-13704958.8131,4639782.06104,5.5
-13704955.7629,4639777.59213,2.114
-13704957.9448,4639776.82481,2.157
-13704954.3491,4639779.79177,3.277
-13704956.4754,4639781.37188,4.345
-13704958.7351,4639779.81167,3.903
-13704957.3102,4639776.98538,2.059
-13704960.2268,4639781.28094,5.058
-13704955.0059,4639781.2312,3.913
-13704958.0561,4639779.91824,3.771
-13704960.8502,4639777.60066,2.762
-13704955.8408,4639780.67987,3.765
-13704961.8187,4639775.33281,1.967
-13704962.5868,4639775.23902,1.989
-13704960.3159,4639775.19924,1.929
-13704957.4438,4639776.72961,1.99
-13704961.8076,4639777.45714,3.031
-13704960.2825,4639778.20883,3.118
